# .PCD v0.7 - Point Cloud Data file format
VERSION 0.7
FIELDS x y z intensity
SIZE 4 4 4 4
TYPE F F F F
COUNT 1 1 1 1
WIDTH 1222
HEIGHT 1
VIEWPOINT 0 0 0 1 0 0 0
POINTS 1222
DATA ascii
-2.5245278 0.046722408 0.20092735 1425
-2.5241933 0.062211737 0.20092735 1379
-2.5232401 0.093182787 0.20092735 5408
-2.5226207 0.10866334 0.20092735 5376
-2.53105 0.14016114 0.20172586 1264
-2.5301425 0.15568873 0.20172586 1302
-2.5291398 0.17121047 0.20172586 1315
-2.5280414 0.18672575 0.20172586 1338
-2.5119438 0.20104356 0.20052809 4936
-2.5235734 0.21756372 0.20156614 5381
-2.5221908 0.23304398 0.20156614 5325
-2.5217056 0.24861312 0.201646 5320
-2.5201328 0.26408136 0.201646 5359
-2.5133059 -0.41948771 0.18678261 3108
-2.5178015 -0.40437564 0.18692979 5182
-2.5123513 -0.38769847 0.18634111 2740
-2.517642 -0.37271529 0.18656185 4861
-2.520869 -0.35740075 0.18663545 5203
-2.5210383 -0.34165746 0.18648827 5191
-2.5211091 -0.32592553 0.18634111 5164
-2.5220716 -0.31032789 0.18626751 5184
-2.5209568 -0.29449832 0.18604675 5200
-2.519743 -0.27869412 0.18582599 5155
-2.5194218 -0.26301998 0.18567882 4459
-2.5358751 -0.24902532 0.18678261 1123
-2.5125291 -0.23116444 0.18494296 3238
-2.5218492 -0.21642958 0.18553165 5214
-2.5221353 -0.20087206 0.18545806 5241
-2.522326 -0.18531919 0.18538448 5236
-2.5224206 -0.16977152 0.18531089 5235
-2.5214238 -0.15416835 0.18516372 5263
-2.5113692 -0.13808663 0.18435428 2299
-2.5251181 -0.12331326 0.18531089 1171
-2.5258272 -0.10781711 0.18531089 1186
-2.5264413 -0.092316896 0.18531089 1171
-2.5229731 -0.076690048 0.18501654 1464
-2.5184109 -0.061084587 0.18464862 4927
-2.5247211 -0.045742068 0.18509014 5273
-2.5209656 -0.030200075 0.18479578 5129
-2.5300786 -0.014787991 0.18545806 1331
-2.5331137 0.00073597161 0.18567882 1175
-2.5330615 0.01627885 0.18567882 1194
-2.533911 0.031833161 0.18575241 1197
-2.533668 0.047380347 0.18575241 1222
-2.5353236 0.062974311 0.18589959 1173
-2.5368831 0.078590363 0.18604675 1150
-2.5323668 0.094008863 0.18575241 3707
-2.5377204 0.10980117 0.18619393 1241
-2.5350065 0.12527277 0.18604675 1195
-2.5312033 0.14066038 0.18582599 1101
-2.5283017 0.15606698 0.18567882 1132
-2.5253062 0.17144327 0.18553165 1147
-2.5232122 0.18686186 0.18545806 1102
-2.5428948 0.20400518 0.18700337 1626
-2.5316591 0.21875055 0.18626751 5170
-2.5342414 0.23464626 0.18656185 5262
-2.5297763 0.249899 0.18634111 5168
-2.5321631 0.26583126 0.18663545 5228
-2.5285017 0.28114387 0.18648827 5164
-2.5183635 -0.43771994 0.17223148 4506
-2.5210018 -0.42225927 0.17223148 5210
-2.5383213 -0.40915731 0.17324647 1697
-2.5319102 -0.39220446 0.17263748 1331
-2.5362427 -0.37695396 0.17277281 1322
-2.5197394 -0.35872206 0.17148714 5192
-2.5357344 -0.34513158 0.17243448 5342
-2.5318675 -0.32879806 0.17202847 5328
-2.5259156 -0.31228113 0.17148714 5299
-2.5297658 -0.29700825 0.17162247 5353
-2.5275743 -0.2810412 0.17135181 5336
-2.5272663 -0.26531962 0.17121647 5368
-2.526861 -0.24961241 0.17108114 4904
-2.5293384 -0.23419471 0.17114881 5362
-2.5317221 -0.21875596 0.17121647 5349
-2.532022 -0.20313819 0.17114881 5361
-2.5302355 -0.18737857 0.17094581 5335
-2.5353198 -0.1721182 0.17121647 5403
-2.5353322 -0.15649752 0.17114881 5425
-2.5342522 -0.14082834 0.17101347 5420
-2.5420442 -0.12561712 0.17148714 1932
-2.5248249 -0.10924947 0.17026913 1368
-2.5269728 -0.078288175 0.1703368 5299
-2.5274055 -0.062781483 0.1703368 5325
-2.5277431 -0.047272429 0.1703368 5284
-2.5289831 -0.031773649 0.17040446 5359
-2.5221467 -0.016214022 0.1699308 4678
-2.5361667 -0.00073537219 0.17087813 1458
-2.5341277 0.014813633 0.17074279 1263
-2.5339894 0.03036247 0.17074279 1318
-2.5337553 0.045910168 0.17074279 1395
-2.533426 0.061456133 0.17074279 1374
-2.5130563 0.076383784 0.16938946 4464
-2.52949 0.092429772 0.1705398 5283
-2.5179107 0.1074753 0.16979547 2588
-2.5351408 0.12380761 0.17101347 1413
-2.5363255 0.13947114 0.17114881 1436
-2.5374141 0.15515386 0.17128414 1410
-2.5394006 0.17092268 0.17148714 1419
-2.5402937 0.18664812 0.17162247 1369
-2.5410898 0.20239094 0.1717578 1410
-2.5404017 0.23374256 0.17189313 5345
-2.5389197 0.24932578 0.17189313 5347
-2.5373421 0.26489958 0.17189313 5328
-2.5356688 0.28046346 0.17189313 5311
-2.5279548 0.29531926 0.17148714 5163
-2.5245521 -0.45472482 0.15676355 5206
-2.522378 -0.43837214 0.15645657 5061
-2.5328956 -0.42420456 0.15694775 1361
-2.5354509 -0.40865499 0.15694775 1368
-2.5369241 -0.39293745 0.15688635 1418
-2.5412621 -0.37765694 0.15700914 1426
-2.5377932 -0.34536782 0.15651797 5433
-2.5378847 -0.32953301 0.15639517 5458
-2.5358965 -0.31346545 0.15614958 5450
-2.5328155 -0.29731858 0.1558426 5371
-2.5296321 -0.2812213 0.15553561 5361
-2.5313101 -0.26569444 0.15553561 1941
-2.530906 -0.24996175 0.15541282 1415
-2.5357716 -0.21905631 0.15553561 5426
-2.5370681 -0.20349298 0.15553561 5421
-2.5382688 -0.187922 0.15553561 5399
-2.5393741 -0.17234394 0.15553561 5465
-2.5373952 -0.15657544 0.15535143 5369
-2.5363147 -0.14089294 0.15522863 5384
-2.5351379 -0.12522957 0.15510583 5321
-2.5334914 -0.093999565 0.15492165 5396
-2.5340207 -0.07845258 0.15492165 5380
-2.5344543 -0.062902644 0.15492165 5384
-2.5367885 -0.047387306 0.15504444 5345
-2.5390275 -0.031845689 0.15516724 5393
-2.5411713 -0.016278375 0.15529002 5403
-2.5381854 0.014888884 0.15510583 1466
-2.5360501 0.030438337 0.15498304 1422
-2.5248384 0.04579778 0.15430768 2089
-2.5434682 0.061752371 0.15547422 5350
-2.5520203 0.077632211 0.1560268 5483
-2.5465088 0.093106501 0.1557198 5397
-2.5508754 0.10894358 0.1560268 5465
-2.5381958 0.124007 0.15529002 1626
-2.5393806 0.13968872 0.15541282 1419
-2.5394719 0.15532851 0.15547422 1400
-2.5404625 0.17104192 0.15559702 1413
-2.5413561 0.18677333 0.1557198 1395
-2.5401623 0.20236328 0.1557198 1406
-2.5454388 0.23425275 0.15621099 5359
-2.5439537 0.24986684 0.15621099 5351
-2.5423725 0.26547158 0.15621099 5352
-2.5416877 0.28117618 0.15627238 5330
-2.5409062 0.29688236 0.15633377 5350
-2.5325956 -0.47128531 0.14174604 5292
-2.5381885 -0.44017097 0.14174604 1294
-2.5388722 -0.42425925 0.14163543 1311
-2.5404413 -0.40851432 0.14158013 1256
-2.5429006 -0.3929188 0.14158013 1365
-2.5452633 -0.37730846 0.14158013 1257
-2.5495076 -0.36196488 0.14169075 1299
-2.5398948 -0.32885417 0.14091656 5338
-2.5388923 -0.31289658 0.14075066 5394
-2.5298557 -0.2960341 0.14014238 4387
-2.5316243 -0.28050563 0.14014238 1323
-2.5392561 -0.26559076 0.14047417 1196
-2.5388508 -0.24980929 0.14036357 1216
-2.5433183 -0.23450202 0.14052947 1584
-2.5417252 -0.21863489 0.14036357 5335
-2.5430186 -0.20303506 0.14036357 5386
-2.5422251 -0.18728052 0.14025298 5380
-2.5413339 -0.17154337 0.14014238 5370
-2.5403457 -0.15582424 0.14003178 5398
-2.5382628 -0.1400685 0.13986588 5300
-2.5450583 -0.12478572 0.14019768 1690
-2.5374179 -0.093213208 0.13969998 5369
-2.53894 -0.077672832 0.13975528 5395
-2.5413654 -0.062141873 0.13986588 5385
-2.5436952 -0.046584066 0.13997647 5422
-2.5449314 -0.030987687 0.14003178 5408
-2.5460722 -0.01537789 0.14008708 5402
-2.5471172 0.00024473949 0.14014238 5372
-2.5510616 0.015897796 0.14036357 1908
-2.5496759 0.047183737 0.14030828 5429
-2.5493383 0.062827364 0.14030828 5409
-2.5499029 0.078499191 0.14036357 5376
-2.5503714 0.094180316 0.14041887 5383
-2.5517404 0.10991294 0.14052947 5387
-2.5472085 0.1410533 0.14036357 1300
-2.5502815 0.15692466 0.14058477 1268
-2.5492709 0.17256995 0.14058477 1218
-2.5322316 0.18703455 0.13969998 2125
-2.5469608 0.20384042 0.14058477 5350
-2.547652 0.21963565 0.14069536 5391
-2.5462561 0.23526363 0.14069536 5381
-2.5447648 0.25088271 0.14069536 5356
-2.5441706 0.26659629 0.14075066 5348
-2.5434792 0.28231201 0.14080596 5337
-2.5436823 0.29814529 0.14091656 5343
-2.543787 0.31399176 0.14102715 5308
-2.5338912 0.32856837 0.14058477 1163
-2.5274789 -0.50200516 0.12610927 4741
-2.5344346 -0.48724356 0.12630606 5211
-2.5344312 -0.47113436 0.12615846 5177
-2.5333421 -0.45486656 0.12596168 5112
-2.5429738 -0.44051036 0.12630606 1373
-2.5416884 -0.42423907 0.12610927 1183
-2.5422716 -0.40831783 0.12601086 1013
-2.5447292 -0.39271104 0.12601086 1086
-2.545115 -0.37679604 0.12591247 1087
-2.5463903 -0.36103171 0.12586327 1087
-2.5465782 -0.34513131 0.12576488 1097
-2.5318098 -0.3273142 0.1249285 4724
-2.5387268 -0.31238541 0.12517449 1850
-2.5415876 -0.2969186 0.1252237 1131
-2.5413764 -0.28109753 0.1251253 1139
-2.5420597 -0.26539448 0.1250761 1069
-2.5426464 -0.24969359 0.1250269 1077
-2.5431364 -0.23399551 0.12497771 1119
-2.5368557 -0.20205165 0.12453492 5185
-2.5390441 -0.18655567 0.12458412 5233
-2.5391443 -0.17090532 0.12453492 5231
-2.5351605 -0.15501499 0.12428893 3778
-2.5490284 -0.14017583 0.1249285 1150
-2.5498405 -0.12453266 0.1249285 1136
-2.5505564 -0.10888479 0.1249285 1149
-2.5262241 -0.092308849 0.12369855 4884
-2.5357277 -0.07708399 0.12414134 5157
-2.5401471 -0.061622445 0.12433812 5239
-2.5354843 -0.045942333 0.12409213 5155
-2.5367172 -0.03039648 0.12414134 5180
-2.5378544 -0.01483723 0.12419052 5239
-2.5339026 0.00073581666 0.12399374 5153
-2.5368466 0.016301334 0.12414134 2920
-2.5337029 0.031830646 0.12399374 5182
-2.5334599 0.047376554 0.12399374 5129
-2.5381141 0.063042261 0.12423973 5221
-2.5336862 0.07849288 0.12404294 5144
-2.5321589 0.094001241 0.12399374 5164
-2.532532 0.10957919 0.12404294 5131
-2.5328093 0.12516527 0.12409213 5175
-2.5540121 0.15764147 0.1252237 1228
-2.533066 0.17196628 0.12423973 4336
-2.53794 0.18794534 0.12453492 5176
-2.5437083 0.20407005 0.12487932 5226
-2.5374327 0.21924661 0.12463331 5148
-2.5380287 0.23499508 0.12473172 5180
-2.5395212 0.25085682 0.12487932 5186
-2.5419075 0.26684952 0.1250761 5139
-2.5432005 0.28277105 0.1252237 5136
-2.5434017 0.29860246 0.12532209 5105
-2.5444953 0.31456906 0.12546968 5104
-2.5504417 0.33120102 0.12586327 4593
-2.5334847 -0.52132016 0.11085566 5184
-2.5346761 -0.50537544 0.11076947 5214
-2.5357671 -0.4894357 0.11068328 5249
-2.5347936 -0.47313589 0.11051089 5193
-2.5346992 -0.45704335 0.1103816 5182
-2.5354869 -0.44114059 0.11029541 5189
-2.5479999 -0.42722222 0.11072637 1313
-2.5486007 -0.41126254 0.11064018 1255
-2.5441647 -0.39454845 0.11033851 1163
-2.5485144 -0.37922347 0.1104247 1210
-2.5557387 -0.36428148 0.11064018 1301
-2.5461457 -0.33109418 0.11003684 5301
-2.5411885 -0.3146092 0.10973516 2180
-2.5480325 -0.29959175 0.10995064 1396
-2.5498226 -0.28395167 0.10995064 1382
-2.5455551 -0.26767689 0.10969207 1270
-2.5471497 -0.25205263 0.10969207 1315
-2.5446687 -0.23605166 0.10951968 1281
-2.5460694 -0.22043341 0.10951968 1269
-2.5455935 -0.18895222 0.10939039 5396
-2.5387306 -0.17279032 0.10904562 2495
-2.5537038 -0.15806708 0.10964897 1433
-2.5456476 -0.14189877 0.1092611 1293
-2.5454726 -0.1262273 0.109218 1303
-2.5461993 -0.11060621 0.109218 1289
-2.5478284 -0.095017686 0.1092611 1380
-2.5413733 -0.079168335 0.10895943 5245
-2.5468051 -0.063695766 0.10917491 5345
-2.5481465 -0.048086032 0.109218 5361
-2.5463958 -0.032425515 0.10913181 5300
-2.5405524 -0.016763862 0.10887323 4614
-2.5505984 -0.0011747915 0.1093042 1386
-2.5485594 0.014463104 0.109218 1234
-2.5451932 0.045681525 0.10908872 5309
-2.5398715 0.061174974 0.10887323 5251
-2.5514312 0.077126198 0.10939039 5333
-2.5529068 0.092853621 0.10947658 5334
-2.552289 0.10851622 0.10947658 5321
-2.5535707 0.12427281 0.10956278 5376
-2.5527601 0.13993889 0.10956278 5346
-2.5448732 0.15517071 0.1092611 5229
-2.5548379 0.17152427 0.10973516 5342
-2.5537374 0.18719722 0.10973516 5343
-2.5545325 0.20302239 0.10982135 5383
-2.5502524 0.21843567 0.10969207 5329
-2.5518489 0.23435517 0.10982135 5346
-2.5533457 0.2503024 0.10995064 5328
-2.5557361 0.26638094 0.11012302 5358
-2.5570326 0.28238806 0.11025231 5345
-2.553267 0.29783991 0.11016612 5257
-2.5553579 0.31399018 0.11033851 5286
-2.5504105 0.32927841 0.11020922 5210
-2.5331345 -0.53605705 0.095229104 5237
-2.5353971 -0.52030319 0.095192112 5230
-2.5375617 -0.50454181 0.09515512 5242
-2.5386469 -0.48858473 0.095081136 5247
-2.5406146 -0.47281599 0.095044143 5324
-2.5415008 -0.45686489 0.094970159 5367
-2.5422869 -0.44092071 0.094896175 5368
-2.5553994 -0.41095781 0.095192112 1412
-2.5539227 -0.39466065 0.095044143 1326
-2.5572848 -0.37912905 0.095081136 1376
-2.5468907 -0.34570488 0.094526246 5418
-2.5539193 -0.33071181 0.094711214 5465
-2.5509412 -0.3144246 0.094526246 5419
-2.5716815 -0.30097044 0.095229104 1606
-2.5526211 -0.28287715 0.094452262 1398
-2.5543087 -0.26720923 0.094452262 1439
-2.5479438 -0.25074959 0.094156325 1346
-2.5464492 -0.23483613 0.094045348 1407
-2.5448554 -0.21895051 0.093934372 1434
-2.5514457 -0.17227241 0.094045348 1416
-2.5544493 -0.15673588 0.094119333 1442
-2.5543654 -0.14100419 0.094082341 1441
-2.5531862 -0.12523066 0.094008356 1315
-2.5529082 -0.10951958 0.093971364 1306
-2.5545306 -0.093889706 0.094008356 1279
-2.5504954 -0.062413193 0.093823388 5344
-2.5528288 -0.046798784 0.093897372 5413
-2.5400777 -0.030977735 0.093416475 2581
-2.5522113 -0.015462234 0.09386038 1393
-2.5522583 0.00019813262 0.09386038 1408
-2.5532086 0.015864862 0.093897372 1360
-2.5600574 0.031618278 0.094156325 1410
-2.5594769 0.06303174 0.094156325 5408
-2.5660336 0.078951463 0.09441527 5467
-2.5615063 0.094546773 0.094267301 5459
-2.557883 0.11013265 0.094156325 5446
-2.5563388 0.14151353 0.094156325 1366
-2.561389 0.17334653 0.09441527 5468
-2.5582838 0.18891214 0.094341286 5393
-2.5560803 0.20452605 0.094304293 5363
-2.5537817 0.22012004 0.094267301 5306
-2.5543733 0.23596978 0.094341286 5306
-2.5558605 0.25193325 0.094452262 5408
-2.5572484 0.26792383 0.094563238 5358
-2.5575426 0.28383055 0.09463723 5364
-2.5577378 0.29975095 0.094711214 5362
-2.5568423 0.31556186 0.094748206 5319
-2.5558488 0.33137304 0.094785199 5322
-2.5547578 0.34718394 0.094822191 5345
-2.5430353 -0.55444252 0.079463005 5094
-2.541815 -0.52158523 0.0792173 5043
-2.5410459 -0.50519884 0.079094447 5244
-2.5440981 -0.4895978 0.079094447 5229
-2.5441065 -0.47342923 0.079002306 5307
-2.5449958 -0.45745602 0.078940883 5265
-2.5457854 -0.44148973 0.078879453 5284
-2.5474603 -0.42569587 0.078848742 5312
-2.5426149 -0.39287466 0.078541614 1656
-2.5459664 -0.37741277 0.078572325 5264
-2.5462551 -0.36150259 0.078510903 5348
-2.5484252 -0.34587231 0.078510903 5329
-2.5504997 -0.33022889 0.078510903 5320
-2.5534699 -0.31469557 0.078541614 5342
-2.5531654 -0.28289592 0.078418761 1280
-2.5528653 -0.26701638 0.078357339 1215
-2.5484872 -0.25075907 0.078173056 1255
-2.5519686 -0.23530099 0.078234486 1167
-2.55566 -0.20404638 0.078265198 5246
-2.5578609 -0.18843491 0.078295909 5309
-2.5659497 -0.17320895 0.078510903 1616
-2.5609782 -0.15709318 0.07832662 1240
-2.5588999 -0.14121066 0.078234486 1201
-2.5597184 -0.12550688 0.078234486 1230
-2.5614388 -0.10984138 0.078265198 1133
-2.559068 -0.094012044 0.078173056 1252
-2.561595 -0.07836958 0.078234486 1214
-2.5613642 -0.046910506 0.078203768 1341
-2.5556071 -0.031119401 0.078019492 1311
-2.5607476 -0.015468897 0.078173056 1195
-2.558795 0.00024397517 0.078111634 1243
-2.5557468 0.01592624 0.078019492 1320
-2.5605986 0.031668708 0.078173056 1207
-2.5553591 0.047287989 0.078019492 1541
-2.5530224 0.062917553 0.07795807 5227
-2.5605807 0.078826182 0.078203768 5348
-2.5550544 0.094352499 0.078050204 5308
-2.5574234 0.11015681 0.078142345 2256
-2.5566993 0.12584679 0.078142345 1239
-2.5588732 0.14169733 0.078234486 1175
-2.5609484 0.15757932 0.07832662 1208
-2.5568283 0.18884729 0.078265198 5289
-2.5556211 0.20453213 0.078265198 5286
-2.5543182 0.22020927 0.078265198 5267
-2.5549092 0.23606175 0.07832662 5291
-2.5563972 0.25202763 0.078418761 5322
-2.559267 0.29996943 0.078664467 5310
-2.5583704 0.31578946 0.078695178 5248
-2.5583668 0.33173814 0.078756601 5199
-2.5562835 0.34742969 0.078756601 5257
-2.5560825 0.36338931 0.078818031 5300
-2.5501819 -0.58838367 0.063554913 5012
-2.55667 -0.57338268 0.063628212 3469
-2.5718603 -0.56024331 0.063921392 973
-2.5732937 -0.54403764 0.063872531 1029
-2.5432892 -0.52139586 0.063041836 1813
-2.5464404 -0.50578076 0.063041836 5133
-2.5485146 -0.48995739 0.063017406 5147
-2.5495074 -0.4739444 0.062968537 5208
-2.5494156 -0.45776054 0.062895246 5185
-2.5502067 -0.44176683 0.062846377 5196
-2.5508971 -0.42578062 0.062797517 5173
-2.5564227 -0.41059759 0.062870808 4137
-2.5490146 -0.39337453 0.062626489 5040
-2.5503917 -0.37757975 0.062602058 5172
-2.5536499 -0.36206457 0.062626489 5087
-2.5538425 -0.34611934 0.062577628 5169
-2.555918 -0.33044279 0.062577628 5100
-2.5569053 -0.31463116 0.06255319 5153
-2.556802 -0.2987034 0.062504329 5133
-2.5553038 -0.2667836 0.062382169 1103
-2.5544031 -0.2350377 0.06228444 5103
-2.5557973 -0.21935974 0.06228444 5221
-2.5560989 -0.20359369 0.062260009 5196
-2.5563028 -0.18783218 0.062235571 5180
-2.5554125 -0.17200823 0.062186711 4788
-2.5644021 -0.15681726 0.062382169 1235
-2.5573308 -0.14063644 0.062186711 1038
-2.5601428 -0.1250408 0.062235571 1089
-2.5628591 -0.10941594 0.06228444 1121
-2.5614841 -0.093614496 0.062235571 1253
-2.556015 -0.077710584 0.062088981 4852
-2.5524464 -0.06192679 0.061991252 5205
-2.5497794 -0.046208318 0.061917957 2168
-2.5620105 -0.030711863 0.062211141 1178
-2.5621507 -0.014991082 0.062211141 1092
-2.5611949 0.00073045789 0.062186711 1137
-2.5611422 0.01644564 0.062186711 1023
-2.5609927 0.032160204 0.062186711 1107
-2.5607474 0.047873557 0.062186711 1049
-2.554971 0.079141915 0.062064551 4265
-2.5674248 0.095293239 0.062382169 1057
-2.5647943 0.1109594 0.062333301 1078
-2.5620677 0.12659688 0.06228444 1079
-2.5592468 0.14220509 0.062235571 1059
-2.5603216 0.15802786 0.06228444 1081
-2.5632932 0.17400363 0.062382169 1189
-2.5551984 0.189215 0.062211141 4984
-2.5539892 0.20488983 0.062211141 5101
-2.5536802 0.22064255 0.062235571 5139
-2.5572555 0.23676592 0.062357739 4913
-2.5706785 0.25391936 0.062724218 1213
-2.5680776 0.26958409 0.062699787 1160
-2.5663753 0.28533643 0.062699787 1088
-2.5646648 0.31705269 0.062748648 5030
-2.5646539 0.33303976 0.062797517 5001
-2.5665247 0.34930727 0.062895246 5017
-2.5673027 0.36546984 0.062968537 5057
-2.5562418 -0.60780501 0.048307184 5168
-2.5618711 -0.59255844 0.048344184 2191
-2.5732636 -0.57857895 0.048492182 1209
-2.5757885 -0.56256586 0.048473682 1272
-2.5782132 -0.54654366 0.048455182 1242
-2.5805387 -0.53051293 0.048436683 1259
-2.5505271 -0.49181861 0.047752202 5296
-2.5525138 -0.47597679 0.047733702 5274
-2.5573545 -0.46065944 0.047770701 5373
-2.5571773 -0.44444692 0.047715206 5306
-2.5654004 -0.41350886 0.047770701 1372
-2.5510917 -0.39516625 0.047456212 1992
-2.5544572 -0.37965214 0.047474712 5360
-2.5597084 -0.36439246 0.047530212 5369
-2.5648682 -0.34908259 0.047585707 5411
-2.5699368 -0.33372313 0.047641207 5431
-2.5739207 -0.31819242 0.047678206 5468
-2.5758245 -0.30239314 0.047678206 5444
-2.5786254 -0.2866925 0.047696706 5440
-2.5674083 -0.26951414 0.047456212 4949
-2.5879195 -0.25561404 0.047807701 5468
-2.5486701 -0.15731435 0.046938229 4960
-2.5615673 -0.14233291 0.047160219 1544
-2.5613935 -0.12656389 0.047141723 1431
-2.5637531 -0.095158719 0.047160219 5400
-2.5672867 -0.079517461 0.047215719 5407
-2.5727241 -0.063885093 0.047308218 5458
-2.5680692 -0.048006911 0.047215719 5415
-2.5723145 -0.032296922 0.047289718 1932
-2.5674651 -0.016483199 0.047197219 1406
-2.5695176 -0.00072882377 0.047234219 1408
-2.5694737 0.015037455 0.047234219 1321
-2.5673335 0.030778235 0.047197219 1288
-2.5760932 0.046697915 0.047363713 1437
-2.5527692 0.061934784 0.046938229 4965
-2.5767958 0.094181448 0.047400713 1467
-2.5761693 0.1099906 0.047400713 1473
-2.5754461 0.12579562 0.047400713 1464
-2.5736272 0.1415405 0.047382213 1356
-2.5727105 0.15732931 0.047382213 1431
-2.5706987 0.17304456 0.047363713 1493
-2.5775659 0.18940483 0.047511712 1736
-2.5942943 0.20665444 0.047844701 5439
-2.5611014 0.21981756 0.047252718 4050
-2.5796161 0.23736981 0.047622707 1424
-2.5731361 0.25270259 0.047530212 1440
-2.5755148 0.26890349 0.047604207 1312
-2.5787847 0.28525349 0.047696706 1353
-2.5799649 0.30142075 0.047752202 1294
-2.557229 0.31467113 0.047363713 4526
-2.5740886 0.33280087 0.047715206 5374
-2.5719984 0.34858885 0.047715206 5296
-2.5717907 0.36464548 0.047752202 5300
-2.569505 0.38041878 0.047752202 5079
-2.5449996 -0.63820541 0.031853128 4484
-2.5566387 -0.62447447 0.031950865 5081
-2.5526397 -0.60692632 0.031853128 3683
-2.577749 -0.59620595 0.032121904 1140
-2.5794075 -0.5799396 0.03209747 1119
-2.5799866 -0.56346214 0.032060817 1138
-2.5833955 -0.54762101 0.032060817 1184
-2.5827892 -0.53095448 0.032011949 1129
-2.5850174 -0.51490164 0.031999733 1150
-2.550838 -0.47563225 0.031498834 5243
-2.5556765 -0.46032587 0.031523269 5310
-2.5769126 -0.43156922 0.031718742 1304
-2.5765505 -0.41527262 0.031682093 1270
-2.5790498 -0.39945537 0.031682093 1311
-2.5590086 -0.36425748 0.031376667 5307
-2.5681312 -0.3494916 0.031462185 5420
-2.5722106 -0.33398446 0.031486619 5382
-2.5732188 -0.31807289 0.0314744 5371
-2.5751221 -0.30227792 0.0314744 5403
-2.5769281 -0.28647158 0.0314744 2244
-2.5776432 -0.27055022 0.031462185 1745
-2.5782597 -0.25463092 0.03144997 5403
-2.5807691 -0.23889823 0.031462185 5428
-2.5762091 -0.22254302 0.031388883 5399
-2.5685554 -0.20601344 0.031278931 5340
-2.5667794 -0.19002821 0.031242277 5338
-2.565902 -0.17414005 0.031217843 5344
-2.5679202 -0.15845414 0.031230062 5327
-2.5714009 -0.11120332 0.031242277 5322
-2.573034 -0.095460311 0.031254496 5332
-2.5755703 -0.079732254 0.031278931 5348
-2.5700133 -0.063779451 0.031205628 5321
-2.5763547 -0.048120033 0.031278931 5367
-2.5686026 -0.032211874 0.031181194 5306
-2.5667522 -0.016438128 0.03115676 1348
-2.5658045 -0.0006884163 0.031144544 1275
-2.5687606 0.015073158 0.031181194 1284
-2.5753806 0.046722736 0.031266712 5383
-2.573046 0.062475234 0.031242277 5369
-2.5716145 0.078231402 0.031230062 5371
-2.5774541 0.11008297 0.03131558 1411
-2.5767298 0.12589586 0.03131558 1374
-2.5759091 0.14170401 0.03131558 1329
-2.574991 0.15750682 0.03131558 1384
-2.5749738 0.17337103 0.031327799 1332
-2.5778503 0.18946131 0.031376667 1674
-2.5852938 0.22193806 0.031498834 1306
-2.5848792 0.23788874 0.031511053 1223
-2.585361 0.25394058 0.031535488 1248
-2.5857434 0.27000728 0.031559922 1279
-2.5840378 0.28586802 0.031559922 1186
-2.5881941 0.30241519 0.031633224 1228
-2.5872822 0.31841269 0.03164544 1473
-2.57338 0.33274135 0.031498834 5260
-2.5712898 0.34852508 0.031498834 5296
-2.5730627 0.36485779 0.031547703 5047
-2.5596967 -0.65811521 0.016042925 5167
-2.5607767 -0.64166713 0.016024601 5194
-2.5666089 -0.62641692 0.016036818 5216
-2.5655396 -0.60950035 0.016006274 5182
-2.5848193 -0.59735203 0.016104013 2334
-2.5855091 -0.58082265 0.016085686 1229
-2.5919554 -0.56558728 0.016104013 1290
-2.5875509 -0.54801393 0.016055143 1224
-2.589885 -0.53192538 0.016049035 1188
-2.5881968 -0.51504755 0.016018491 1244
-2.5883625 -0.4985891 0.016000165 1379
-2.5569668 -0.47628325 0.015786365 3518
-2.5883811 -0.46572495 0.015963513 1387
-2.5862641 -0.44897816 0.015932972 1368
-2.5850253 -0.4324401 0.015908536 1389
-2.5826938 -0.41577509 0.015877994 1326
-2.584208 -0.39976713 0.015871884 1401
-2.585623 -0.38375622 0.015865777 1325
-2.5762656 -0.35011032 0.015780255 5451
-2.5724158 -0.33352366 0.015743604 5404
-2.5664742 -0.3167522 0.015694736 4960
-2.5970023 -0.28821611 0.015859667 1415
-2.5957382 -0.2719627 0.015841341 1338
-2.5670171 -0.23713987 0.015645865 5341
-2.5684235 -0.22138448 0.015645865 5350
-2.568737 -0.20554084 0.015639758 5377
-2.5689526 -0.18970169 0.015633648 5328
-2.5700681 -0.17393532 0.015633648 5359
-2.5710871 -0.15816242 0.015633648 5331
-2.5849888 -0.14310418 0.01571306 1673
-2.5748317 -0.12669791 0.015645865 5325
-2.5775588 -0.11098302 0.015658082 5422
-2.5781913 -0.09516532 0.015658082 5423
-2.5797265 -0.079374962 0.015664192 5414
-2.5811644 -0.063569352 0.0156703 5430
-2.5885046 -0.04786095 0.01571306 5460
-2.5807502 -0.031877194 0.015664192 5418
-2.5649474 -0.00020117775 0.015566453 1469
-2.5629005 0.015525255 0.015554236 4899
-2.5787556 0.031443126 0.015651975 5393
-2.5765142 0.047229148 0.015639758 5418
-2.5751765 0.063013151 0.015633648 5405
-2.5737417 0.078782521 0.015627541 5384
-2.5722103 0.09453664 0.015621431 5393
-2.5875671 0.11100082 0.01571917 1561
-2.5788469 0.12648512 0.0156703 1337
-2.5780222 0.14230625 0.0156703 1404
-2.5790968 0.15824418 0.015682518 1271
-2.5789552 0.1900284 0.015694736 5363
-2.5777407 0.20584901 0.015694736 5372
-2.587966 0.23865803 0.015774148 1257
-2.5914285 0.25502187 0.015804689 1272
-2.5957825 0.27154109 0.015841341 1346
-2.5940676 0.2874634 0.015841341 1294
-2.5962276 0.30383918 0.015865777 1352
-2.5933218 0.31964144 0.015859667 1246
-2.5704858 0.3328543 0.015731387 4432
-2.5704765 -0.66039848 0 4941
-2.5735102 -0.64437062 0 4957
-2.5754724 -0.628093 0 5045
-2.5744138 -0.61112118 0 5101
-2.5761666 -0.59486252 0 5087
-2.5934269 -0.58211672 0 1284
-2.589134 -0.56448501 0 1097
-2.5925491 -0.5485878 0 1093
-2.5909688 -0.53166252 0 1102
-2.5843749 -0.51380008 0 1485
-2.5717688 -0.49490207 0 5097
-2.5737739 -0.47892928 0 5212
-2.5933948 -0.46614316 0 1393
-2.5902946 -0.44919363 0 1138
-2.5910296 -0.43296087 0 1096
-2.587714 -0.41609913 0 1069
-2.5872538 -0.39975387 0 1079
-2.5857015 -0.38328287 0 1020
-2.5939448 -0.36825624 0 1196
-2.5723748 -0.34909439 0 4993
-2.5784352 -0.33381951 0 1990
-2.5893669 -0.31909725 0 1089
-2.5892897 -0.30296981 0 1159
-2.5861306 -0.28652358 0 1104
-2.5838618 -0.27023205 0 1007
-2.5854714 -0.25437266 0 1112
-2.5744503 -0.22141947 0 5190
-2.5757606 -0.20561877 0 5164
-2.5769737 -0.18981034 0 5265
-2.5641217 -0.17304535 0 3296
-2.5870934 -0.15866613 0 1101
-2.5880182 -0.14278904 0 1057
-2.570868 -0.12601668 0 2236
-2.57459 -0.11036968 0 5180
-2.5782166 -0.094681755 0 5236
-2.5777495 -0.078829296 0 5234
-2.5781846 -0.063011035 0 5237
-2.5805223 -0.047227949 0 5275
-2.5757642 -0.031330064 0 5197
-2.571908 -0.015498857 0 4943
-2.5699546 0.0002831067 0 4915
-2.5779042 0.016098166 0 5235
-2.5777569 0.031915586 0 5205
-2.5765128 0.047713771 0 5202
-2.574172 0.063473716 0 5112
-2.5747335 0.079297639 0 5170
-2.5751982 0.095130861 0 5228
-2.5735669 0.11088762 0 4142
-2.5998058 0.12799147 0 1192
-2.5889866 0.14339292 0 1645
-2.5710895 0.15823978 0 5049
-2.5840387 0.17495173 0 5202
-2.5829167 0.19080381 0 5261
-2.5836906 0.20680735 0 5196
-2.5833697 0.22274208 0 5205
-2.597887 0.24005379 0 1508
-2.5933797 0.25569668 0 1113
-2.5917621 0.27160454 0 1016
-2.5910406 0.28761202 0 1076
-2.5941935 0.30408469 0 1780
-2.5883088 0.31950846 0 5021
-2.5731163 -0.64574087 -0.016104013 5046
-2.5750871 -0.62946635 -0.016091796 5111
-2.5759823 -0.61296093 -0.016073469 5112
-2.5757976 -0.59624332 -0.016049035 5062
-2.5764804 -0.57977003 -0.016030708 5136
-2.5975754 -0.56778568 -0.016140664 1364
-2.5902493 -0.54955858 -0.016073469 1126
-2.5693364 -0.51226902 -0.015902428 5220
-2.5704672 -0.49611619 -0.015890211 5211
-2.5714972 -0.47996873 -0.015877994 5252
-2.5734096 -0.46400428 -0.015871884 5154
-2.5968988 -0.4517951 -0.016000165 1380
-2.5946906 -0.43502787 -0.015969623 1209
-2.5982981 -0.41925782 -0.01597573 1279
-2.5998335 -0.40315428 -0.015969623 1343
-2.6002798 -0.38690099 -0.015957406 1283
-2.5731235 -0.35065663 -0.01576193 5308
-2.601052 -0.32199132 -0.015908536 1417
-2.6029787 -0.30602551 -0.015908536 1439
-2.6038136 -0.28993797 -0.015902428 1346
-2.60256 -0.27364349 -0.015884101 1379
-2.6021998 -0.25747338 -0.015871884 1366
-2.6007435 -0.24122606 -0.01585356 1511
-2.5945365 -0.20857586 -0.015798582 5447
-2.5937729 -0.19250506 -0.015786365 2249
-2.599894 -0.17692345 -0.015816906 1343
-2.5969379 -0.16072229 -0.015792472 1395
-2.5948799 -0.14461924 -0.015774148 1366
-2.5957184 -0.12869462 -0.015774148 1376
-2.5791147 -0.096169345 -0.015664192 5335
-2.5806558 -0.080373041 -0.0156703 5329
-2.5840995 -0.064610481 -0.015688626 5399
-2.5824478 -0.048716754 -0.015676409 5348
-2.6008506 -0.017132536 -0.015786365 1272
-2.5879066 -0.0011739775 -0.015706953 1422
-2.5778654 0.014643567 -0.015645865 5294
-2.5777273 0.030460777 -0.015645865 5313
-2.5764921 0.046258412 -0.015639758 5257
-2.5761597 0.0620666 -0.015639758 5270
-2.5757303 0.077872448 -0.015639758 5248
-2.5752039 0.09367536 -0.015639758 5299
-2.5755796 0.10951771 -0.015645865 5347
-2.5838482 0.12576091 -0.015700843 4825
-2.5830281 0.14161274 -0.015700843 5310
-2.587101 0.15776594 -0.015731387 5374
-2.5890772 0.17383951 -0.015749712 5392
-2.58497 0.18950176 -0.015731387 5287
-2.5837586 0.20535928 -0.015731387 5301
-2.5834463 0.22129488 -0.015737494 5330
-2.5830355 0.23723438 -0.015743604 5351
-2.5974541 0.2546477 -0.015841341 1529
-2.6087718 0.27193442 -0.015920753 1342
-2.5893471 0.30206618 -0.015823016 4418
-2.5750902 -0.62897825 -0.032642726 5096
-2.5769553 -0.61270368 -0.032617941 5093
-2.5777435 -0.5962047 -0.032580767 5118
-2.579402 -0.57993841 -0.032555982 5108
-2.567281 -0.56068933 -0.032357719 4200
-2.5749478 -0.52934384 -0.032370109 5172
-2.5752051 -0.51294875 -0.032332934 5146
-2.5753586 -0.49657041 -0.032295763 5187
-2.576391 -0.48039266 -0.032270979 5166
-2.5773215 -0.46422103 -0.032246195 5279
-2.5946591 -0.43453848 -0.032394893 1354
-2.5972764 -0.41860977 -0.032394893 1228
-2.5997961 -0.40266529 -0.032394893 1272
-2.5778122 -0.36693105 -0.032060321 5323
-2.5790246 -0.35097232 -0.032047931 5314
-2.5801377 -0.33501253 -0.032035541 5283
-2.6059625 -0.322115 -0.032332934 1406
-2.6059036 -0.30588624 -0.032308154 1308
-2.6087251 -0.29000127 -0.032320544 1385
-2.6054831 -0.27346787 -0.032258589 1433
-2.6031313 -0.25708333 -0.03220902 1444
-2.6026688 -0.24092194 -0.032184239 1437
-2.6104128 -0.20936397 -0.032246195 1986
-2.610651 -0.19326918 -0.032233804 1334
-2.6097927 -0.17711179 -0.03220902 1330
-2.6068382 -0.16084938 -0.032159455 1309
-2.6057794 -0.14474048 -0.032134671 1276
-2.6056194 -0.12869982 -0.03212228 1307
-2.6073592 -0.11275267 -0.032134671 1341
-2.5815613 -0.07991676 -0.031800102 5310
-2.6113405 -0.048767935 -0.032159455 1555
-2.6095908 -0.03271937 -0.032134671 1268
-2.6087427 -0.016700363 -0.03212228 1252
-2.6037962 -0.00069256057 -0.032060321 1312
-2.5796123 0.0309682 -0.031762928 5324
-2.5783741 0.046777524 -0.031750534 5294
-2.5780385 0.062597252 -0.031750534 5348
-2.6004257 0.11106773 -0.032047931 2364
-2.6156747 0.12780483 -0.032246195 1323
-2.585964 0.15817976 -0.031899232 5230
-2.5879378 0.17424594 -0.031936407 5305
-2.5868199 0.19012196 -0.031936407 5357
-2.5856047 0.20599081 -0.031936407 5237
-2.585288 0.2219376 -0.031948797 5239
-2.5838778 0.23779643 -0.031948797 5293
-2.5837486 0.2697987 -0.031985972 4983
-2.5969522 0.2872988 -0.032171845 1243
-2.5797417 -0.61287665 -0.048751172 5168
-2.5834537 -0.59703612 -0.048751172 5072
-2.5860929 -0.58095384 -0.048732672 5055
-2.5857015 -0.56422168 -0.048658676 5193
-2.5852027 -0.54751629 -0.048584677 5187
-2.583617 -0.53063697 -0.048492182 5242
-2.5829015 -0.51399302 -0.048418183 5215
-2.5830617 -0.49756709 -0.048362684 5204
-2.5841 -0.48134193 -0.048325684 5270
-2.585037 -0.46512267 -0.048288688 5264
-2.5868573 -0.44908124 -0.048270188 5282
-2.5990832 -0.41841617 -0.048399683 2060
-2.5848048 -0.39985949 -0.048085194 5253
-2.5802867 -0.38296333 -0.047955696 5309
-2.5825877 -0.36712375 -0.047955696 5290
-2.5857828 -0.3514052 -0.047974195 5247
-2.5868986 -0.3354038 -0.047955696 5267
-2.6136591 -0.30631366 -0.048381183 1351
-2.6135018 -0.29004991 -0.048344184 1299
-2.6132438 -0.2737996 -0.048307184 1241
-2.6128845 -0.25756341 -0.048270188 1403
-2.588531 -0.2391308 -0.047789201 5067
-2.586961 -0.22298528 -0.047733702 5249
-2.5872836 -0.20702788 -0.047715206 5173
-2.6174214 -0.19328867 -0.048251688 1369
-2.6175606 -0.17715715 -0.048233189 1350
-2.6156042 -0.16090813 -0.048177689 1273
-2.6145461 -0.1447452 -0.04814069 1227
-2.6143863 -0.12865062 -0.04812219 1299
-2.6131289 -0.11252029 -0.048085194 1278
-2.6117716 -0.096410237 -0.048048194 1220
-2.583333 -0.079486512 -0.047511712 3280
-2.6147571 -0.064402066 -0.048085194 1279
-2.6161027 -0.048375655 -0.048103694 1215
-2.6163502 -0.032322638 -0.048103694 1283
-2.6154997 -0.01626203 -0.048085194 1281
-2.6135504 -0.00021284167 -0.048048194 1290
-2.610503 0.015805921 -0.047992695 1332
-2.5863438 0.079166234 -0.047567207 5092
-2.6137857 0.096057959 -0.048085194 1347
-2.613147 0.11209403 -0.048085194 1247
-2.6164045 0.12832117 -0.04815919 1282
-2.5856185 0.14272432 -0.047604207 1729
-2.5916796 0.15901418 -0.047733702 5290
-2.5926504 0.17504783 -0.047770701 5163
-2.5925245 0.19102606 -0.047789201 5259
-2.590307 0.20685047 -0.047770701 5205
-2.588989 0.2227404 -0.047770701 5254
-2.5875735 0.23862195 -0.047770701 5205
-2.5880511 0.25469002 -0.047807701 5003
-2.5892003 -0.61463857 -0.065091476 5004
-2.5890272 -0.59783846 -0.064993046 5094
-2.5887451 -0.58106369 -0.064894624 5129
-2.5893316 -0.56452823 -0.064820804 5170
-2.589813 -0.54800755 -0.064746983 5204
-2.5901892 -0.53150219 -0.064673163 5191
-2.5904608 -0.51501292 -0.064599343 5162
-2.5896456 -0.49835092 -0.064500913 5173
-2.5897062 -0.48190176 -0.064427093 5188
-2.589663 -0.46547058 -0.06435328 5178
-2.5895154 -0.44905812 -0.064279459 5215
-2.5932081 -0.43332592 -0.064304061 3796
-2.5908833 -0.4166103 -0.06418103 5108
-2.5894392 -0.4000926 -0.0640826 5131
-2.5898678 -0.38390246 -0.064033389 5173
-2.5911849 -0.36786312 -0.06400878 5142
-2.5904217 -0.35155225 -0.063934959 5188
-2.5915387 -0.33552232 -0.063910358 5195
-2.5945406 -0.31973732 -0.063934959 5136
-2.5885108 -0.30287832 -0.063738108 2407
-2.5893269 -0.28687924 -0.063713506 1001
-2.5906627 -0.25488591 -0.063664287 5120
-2.5881963 -0.23861611 -0.063565865 5153
-2.5886157 -0.22264458 -0.063541256 5203
-2.58794 -0.2065969 -0.063492045 5186
-2.5861681 -0.19049197 -0.063418224 3794
-2.6102281 -0.17617922 -0.063984178 1118
-2.6102622 -0.16009817 -0.063959569 1108
-2.6091995 -0.14396778 -0.063910358 1120
-2.6060398 -0.12775764 -0.063811928 1071
-2.5887966 -0.11098554 -0.063369013 1927
-2.5924261 -0.095210403 -0.063442826 5199
-2.5909629 -0.079239711 -0.063393615 5147
-2.615386 -0.063938074 -0.063984178 1250
-2.6187277 -0.047945477 -0.064057998 1232
-2.6199718 -0.031889003 -0.0640826 1186
-2.618119 -0.015799547 -0.064033389 1167
-2.6171668 0.00026559649 -0.06400878 1184
-2.6151166 0.0163127 -0.063959569 1173
-2.6149676 0.032358445 -0.063959569 1149
-2.5917304 0.047988273 -0.063393615 4933
-2.5993822 0.064083233 -0.063590467 2071
-2.6069341 0.080273896 -0.063787326 1160
-2.6083901 0.096341081 -0.063836537 1175
-2.6077502 0.11234405 -0.063836537 1095
-2.611006 0.12853752 -0.063934959 1132
-2.6131625 0.14472035 -0.06400878 1192
-2.6002181 0.1760394 -0.063738108 5211
-2.600086 0.19206388 -0.063762717 5222
-2.5988586 0.2080141 -0.063762717 5196
-2.597533 0.22395648 -0.063762717 5202
-2.5941188 0.23970741 -0.063713506 1371
-2.5921538 -0.60002142 -0.081705831 4960
-2.5928607 -0.58344805 -0.081613168 4968
-2.593462 -0.56688857 -0.081520505 5021
-2.5929804 -0.55013674 -0.08139696 5081
-2.5923908 -0.53341228 -0.081273407 5131
-2.592674 -0.51691061 -0.081180744 5088
-2.5928524 -0.5004257 -0.081088081 5205
-2.5919435 -0.48377511 -0.080964535 5138
-2.5919118 -0.46733144 -0.080871873 5098
-2.6173811 -0.45534873 -0.081582285 2064
-2.620126 -0.43928021 -0.081582285 1186
-2.61093 -0.42128998 -0.081211634 1394
-2.5897589 -0.40159684 -0.080470338 5105
-2.5901968 -0.38540554 -0.080408558 5163
-2.5915234 -0.36936456 -0.080377676 5185
-2.5957217 -0.35372528 -0.080439448 5244
-2.5968521 -0.3376632 -0.080408558 5330
-2.5968912 -0.32147822 -0.080346785 5303
-2.5968292 -0.30530545 -0.080285013 5312
-2.5946801 -0.28892526 -0.08016146 4985
-2.5993862 -0.27331132 -0.080254123 5337
-2.6010141 -0.25735664 -0.080254123 5394
-2.6025443 -0.24139227 -0.080254123 5349
-2.6089556 -0.2258475 -0.080408558 5435
-2.6043146 -0.20935723 -0.080223233 5364
-2.6035562 -0.19322652 -0.08016146 5387
-2.6226912 -0.16230389 -0.080686547 1357
-2.6186478 -0.14593259 -0.080532111 1329
-2.5942779 -0.11267146 -0.079729035 5325
-2.5939214 -0.096714385 -0.079698153 5262
-2.5934668 -0.080765918 -0.079667263 5198
-2.5909162 -0.064777665 -0.0795746 5082
-2.6222446 -0.04944855 -0.080532111 1358
-2.6264966 -0.033406798 -0.080655657 1345
-2.6226542 -0.017265847 -0.080532111 1278
-2.6207116 -0.0011732618 -0.080470338 1194
-2.6196699 0.01490099 -0.080439448 1202
-2.5963047 0.046623595 -0.079729035 5244
-2.6049628 0.062774301 -0.080007024 1729
-2.6135201 0.07903301 -0.080285013 1222
-2.6139846 0.09510459 -0.080315895 1235
-2.6163478 0.11127073 -0.080408558 1268
-2.6166141 0.12737131 -0.080439448 1233
-2.6177793 0.14353453 -0.080501221 1197
-2.6198423 0.15977818 -0.080593884 1194
-2.6067195 0.19110656 -0.080254123 5334
-2.6045012 0.20701784 -0.080223233 5218
-2.5925703 -0.58242464 -0.097744599 5107
-2.5951188 -0.566293 -0.097707607 5053
-2.5965896 -0.54994524 -0.097633623 5063
-2.5959992 -0.53319889 -0.097485654 5173
-2.596282 -0.51667535 -0.097374678 5104
-2.5964592 -0.50016856 -0.097263694 5147
-2.5975146 -0.48386186 -0.09718971 4364
-2.6240396 -0.47215834 -0.098077536 1210
-2.6229489 -0.45536554 -0.09792956 1236
-2.6256936 -0.43926284 -0.09792956 1175
-2.6263659 -0.42282629 -0.097855575 1191
-2.598736 -0.38572824 -0.09663482 5331
-2.5990753 -0.36949444 -0.096560836 5344
-2.5983226 -0.35313657 -0.096449859 5330
-2.5984585 -0.33693025 -0.096375875 5261
-2.5984936 -0.32073551 -0.096301891 5358
-2.5942881 -0.28794318 -0.096005954 2009
-2.5989876 -0.27233148 -0.09611693 5361
-2.5986209 -0.25618351 -0.096042946 5339
-2.5991485 -0.24014206 -0.096005954 5295
-2.5975864 -0.22393245 -0.09589497 5218
-2.598911 -0.20798972 -0.09589497 5282
-2.5981455 -0.1918923 -0.095820986 5260
-2.5942886 -0.17561011 -0.095636025 5225
-2.62923 -0.16176981 -0.096893772 2533
-2.5952504 -0.14370587 -0.095599033 5186
-2.5970814 -0.12782799 -0.095636025 5251
-2.5988152 -0.11193304 -0.095673017 5215
-2.5984545 -0.095948175 -0.095636025 5251
-2.5969968 -0.079941384 -0.095562041 5206
-2.5964396 -0.063980542 -0.095525049 5180
-2.6240087 -0.03244276 -0.096523844 1284
-2.6251574 -0.016347598 -0.096560836 1317
-2.6252084 -0.00023962845 -0.096560836 1304
-2.6000326 0.031667519 -0.095636025 5205
-2.5997894 0.047620423 -0.095636025 5287
-2.6004472 0.063596129 -0.095673017 5235
-2.6219826 0.080226794 -0.096486852 1326
-2.6224396 0.09635032 -0.096523844 1247
-2.6237957 0.11252543 -0.096597828 1240
-2.6220582 0.12857354 -0.096560836 1303
-2.623215 0.14477021 -0.09663482 1293
-2.6242723 0.16098592 -0.096708812 1291
-2.5974977 -0.56632572 -0.11441968 5008
-2.6019013 -0.55058408 -0.11446295 5100
-2.6032732 -0.53420675 -0.1143764 5124
-2.6045423 -0.51783335 -0.11428986 5167
-2.6244512 -0.48839372 -0.11489566 1180
-2.6283817 -0.47245806 -0.11493892 1091
-2.6302469 -0.45615086 -0.11489566 1135
-2.6339819 -0.44016823 -0.11493892 1105
-2.6336739 -0.42352182 -0.11480911 1175
-2.6352358 -0.40720123 -0.11476585 1078
-2.6004694 -0.36920851 -0.11303502 5262
-2.6016958 -0.35311085 -0.11299174 5236
-2.6375625 -0.325073 -0.1143764 1198
-2.6325614 -0.30806917 -0.11407351 1098
-2.603982 -0.25622848 -0.11260231 5142
-2.6025205 -0.23997024 -0.1124725 5203
-2.6039436 -0.22399695 -0.1124725 5166
-2.6032777 -0.2078559 -0.11238596 5206
-2.6025112 -0.19173145 -0.11229941 5153
-2.6216202 -0.16082278 -0.11303502 1822
-2.6006119 -0.14351921 -0.11208306 5156
-2.6044369 -0.12770671 -0.11221287 5168
-2.6061697 -0.11176675 -0.11225615 5259
-2.6068063 -0.095773481 -0.11225615 5225
-2.6063461 -0.079745904 -0.11221287 5232
-2.6047893 -0.063702993 -0.11212634 5124
-2.6071286 -0.047756024 -0.11221287 5227
-2.6055679 0.00024091393 -0.11212634 5178
-2.6045184 0.016222309 -0.11208306 5233
-2.6043696 0.03220303 -0.11208306 5270
-2.6051223 0.048200857 -0.11212634 5219
-2.6057758 0.064209133 -0.1121696 5250
-2.6357419 0.097319119 -0.113511 1222
-2.6380894 0.11361838 -0.11364081 1118
-2.6383405 0.12985221 -0.11368407 1109
-2.6027055 -0.56697762 -0.13038953 4732
-2.610044 -0.55182517 -0.13058633 5166
-2.611424 -0.53539783 -0.13048793 5070
-2.6136801 -0.51916927 -0.13043873 5081
-2.6168165 -0.50312227 -0.13043873 5214
-2.6031625 -0.48394513 -0.12960236 2317
-2.6326234 -0.47274184 -0.13093071 1090
-2.6354744 -0.45657951 -0.13093071 1044
-2.6411815 -0.44089466 -0.1310783 1168
-2.6418653 -0.42436263 -0.13097991 1057
-2.6414583 -0.40768602 -0.13083231 1095
-2.6389704 -0.39073697 -0.13058633 1059
-2.6156085 -0.37087947 -0.12930717 4625
-2.6376283 -0.35751563 -0.13029113 1208
-2.6239247 -0.33926812 -0.12950397 1034
-2.6269484 -0.32328409 -0.12955315 1065
-2.6259065 -0.30681026 -0.12940556 1021
-2.6247616 -0.29036137 -0.12925796 1035
-2.6225202 -0.2738339 -0.12906118 1044
-2.6097708 -0.24015903 -0.12827399 5173
-2.6111951 -0.22414126 -0.12827399 5179
-2.6125212 -0.20811504 -0.12827399 5164
-2.6456234 -0.19443847 -0.12984835 1581
-2.6268365 -0.17685042 -0.12886438 1065
-2.6298656 -0.160852 -0.12896277 1082
-2.6136854 -0.12768172 -0.12807721 5162
-2.6144195 -0.11164205 -0.12807721 5175
-2.6160536 -0.095635124 -0.1281264 5236
-2.6175895 -0.079612352 -0.1281756 5259
-2.6140347 -0.063450806 -0.1279788 5166
-2.6133761 -0.047391612 -0.12792961 5196
-2.6196101 -0.031430062 -0.1282248 2947
-2.6117635 -0.015305247 -0.12783121 5195
-2.6098106 0.00072091218 -0.12773281 5141
-2.6117547 0.01674626 -0.12783121 5193
-2.6126013 0.03278343 -0.12788041 5184
-2.6133499 0.048831623 -0.12792961 5186
-2.6149981 0.064914547 -0.12802801 5195
-2.6145504 0.080958657 -0.12802801 5150
-2.6219895 0.097292237 -0.12842159 2232
-2.6373091 0.11406168 -0.12920877 1130
-2.6166074 0.1292655 -0.1282248 4684
-2.6205471 -0.55597204 -0.1474418 4877
-2.6170628 -0.53847677 -0.14705472 5096
-2.6183589 -0.52201909 -0.14694412 5142
-2.6195517 -0.50556576 -0.14683352 5049
-2.6186779 -0.4887521 -0.14661233 5009
-2.6344028 -0.47497225 -0.14733121 2086
-2.6441541 -0.45999366 -0.1477183 1176
-2.645942 -0.44359609 -0.147663 1193
-2.6476278 -0.427194 -0.1476077 1163
-2.6204436 -0.37347266 -0.14567225 5239
-2.6375268 -0.35940221 -0.14650172 2085
-2.6396825 -0.34321189 -0.14650172 1283
-2.6417387 -0.32700861 -0.14650172 1327
-2.642704 -0.31067693 -0.14644642 1392
-2.643568 -0.29434574 -0.14639112 1377
-2.6433382 -0.27791169 -0.14628053 1291
-2.6430061 -0.26149157 -0.14616993 1351
-2.608768 -0.24196658 -0.14417918 4883
-2.6151776 -0.22638315 -0.14445567 5099
-2.6507998 -0.14770922 -0.14611463 1419
-2.6204913 -0.11379749 -0.14434507 5242
-2.6221378 -0.097753048 -0.14440037 5317
-2.6236861 -0.081692673 -0.14445567 5331
-2.6221418 -0.06554354 -0.14434507 5230
-2.6534419 -0.0500222 -0.14605933 1452
-2.6527004 -0.033727814 -0.14600404 1351
-2.6179683 -0.0011733216 -0.14406858 5271
-2.6169276 0.014884104 -0.14401329 5226
-2.6177857 0.030953262 -0.14406858 5272
-2.6175461 0.047015112 -0.14406858 5211
-2.6162105 0.063050665 -0.14401329 5191
-2.6177704 0.079163544 -0.14412388 5208
-2.618233 0.095261164 -0.14417918 5294
-2.6195946 0.11141033 -0.14428978 5247
-2.6201234 -0.53862345 -0.16444512 5108
-2.6214211 -0.52214688 -0.16432162 5145
-2.6226156 -0.50567472 -0.16419813 5241
-2.622725 -0.48902473 -0.16401289 5198
-2.620765 -0.47203889 -0.16370417 5162
-2.6354125 -0.45799819 -0.16444512 1364
-2.6440797 -0.44280726 -0.16481557 1304
-2.6240826 -0.42292592 -0.16339543 1935
-2.6197238 -0.40574861 -0.16296323 5222
-2.6261129 -0.39025286 -0.1632102 5355
-2.6264818 -0.373851 -0.16308671 5305
-2.6316934 -0.35813147 -0.16327195 5390
-2.6467865 -0.32715467 -0.16395114 1380
-2.6497352 -0.31102437 -0.16401289 1260
-2.6476257 -0.29431957 -0.16376591 1353
-2.6464038 -0.27775639 -0.16358067 1321
-2.6550112 -0.26219869 -0.16401289 1579
-2.6168158 -0.24222927 -0.16154307 5107
-2.6530569 -0.2291692 -0.16370417 1752
-2.6514285 -0.21264713 -0.16351894 1304
-2.652683 -0.19637427 -0.16351894 1307
-2.6528425 -0.18002658 -0.16345719 1345
-2.6529009 -0.16368432 -0.16339543 1337
-2.6508656 -0.14723778 -0.1632102 1370
-2.6497252 -0.13087143 -0.16308671 1367
-2.6222069 -0.097276844 -0.1612961 5311
-2.6297376 -0.081400514 -0.16172831 2894
-2.6561303 -0.065902904 -0.1633337 1402
-2.652493 -0.049530033 -0.16308671 1313
-2.6527469 -0.033253711 -0.16308671 1311
-2.6499066 -0.016957438 -0.16290148 1251
-2.6219692 0.015393844 -0.16117261 5298
-2.6228235 0.031493794 -0.16123435 5230
-2.6225808 0.047586542 -0.16123435 5333
-2.6222396 0.063677505 -0.16123435 5235
-2.6208019 0.079735555 -0.16117261 5242
-2.6235681 -0.52161914 -0.1798199 5165
-2.6247597 -0.50513405 -0.17968491 5215
-2.6238863 -0.48828852 -0.17941494 5298
-2.6258512 -0.4720028 -0.17934746 5211
-2.6267319 -0.45554072 -0.17921247 5087
-2.6183336 -0.42105252 -0.17826757 5309
-2.6248119 -0.40558884 -0.17853753 5283
-2.6252775 -0.38918278 -0.17840254 5331
-2.6286037 -0.37320745 -0.17847005 5301
-2.6318328 -0.35720593 -0.17853753 5354
-2.6319959 -0.34079406 -0.17840254 5027
-2.6528518 -0.32695976 -0.17968491 1266
-2.6548078 -0.31067598 -0.17968491 1254
-2.6596389 -0.29471067 -0.1798874 1190
-2.6253247 -0.25833195 -0.17732266 5227
-2.6228864 -0.24185136 -0.17705269 5204
-2.624321 -0.22575308 -0.17705269 5155
-2.6495261 -0.21155588 -0.17867252 1313
-2.6547539 -0.19558856 -0.17894249 1215
-2.6608815 -0.1796324 -0.17927995 1153
-2.6619337 -0.16330214 -0.17927995 1151
-2.6628857 -0.14696576 -0.17927995 1176
-2.6517792 -0.13003559 -0.17847005 1277
-2.6641424 -0.097889066 -0.17921247 1610
-2.6547205 -0.081233636 -0.17853753 1298
-2.6541715 -0.064918496 -0.17847005 1246
-2.6535225 -0.048613161 -0.17840254 1242
-2.6507778 -0.032293614 -0.17820007 1177
-2.6529214 -0.016040511 -0.17833506 1346
-2.6499767 0.00023800737 -0.17813258 1305
-2.6268287 0.032477178 -0.17658024 5286
-2.6245847 0.048557885 -0.17644526 5321
-2.6252346 0.064685546 -0.17651275 5204
-2.6274784 -0.50564998 -0.19666573 5149
-2.628571 -0.4891527 -0.19651821 5153
-2.6305416 -0.47283801 -0.19644445 5118
-2.631428 -0.45634666 -0.19629693 5127
-2.6331952 -0.44002712 -0.19622317 5141
-2.6328917 -0.42338547 -0.19600189 5160
-2.6354401 -0.40722236 -0.19600189 5103
-2.6349299 -0.39060387 -0.19578061 5163
-2.6353021 -0.37414765 -0.1956331 5129
-2.634584 -0.35756692 -0.19541182 5094
-2.6347504 -0.34113765 -0.19526429 5139
-2.6605284 -0.31133968 -0.19688702 1200
-2.6267073 -0.29103866 -0.19423164 4914
-2.6324105 -0.27533281 -0.19452669 5118
-2.6300807 -0.25878301 -0.19423164 5118
-2.6316192 -0.24264027 -0.19423164 5062
-2.6270969 -0.22597279 -0.19378908 5115
-2.6614976 -0.19607672 -0.19614941 1025
-2.6616557 -0.17967474 -0.19607565 1093
-2.6646562 -0.14705403 -0.19614941 1108
-2.6323845 -0.11287504 -0.19364156 5191
-2.6400034 -0.096980445 -0.19415788 4902
-2.6574943 -0.081306204 -0.19541182 1223
-2.6579432 -0.064998589 -0.19541182 1122
-2.6572948 -0.048669808 -0.19533806 1116
-2.6555493 -0.032338817 -0.19519053 1135
-2.6556976 -0.016044069 -0.19519053 1069
-2.6527543 0.00025239773 -0.19496925 1109
-2.6616778 0.016581131 -0.1956331 1472
-2.6355989 0.032603994 -0.19371532 5172
-2.6367497 -0.5088768 -0.21378335 4139
-2.6329627 -0.49141136 -0.2132244 5011
-2.6329851 -0.47471732 -0.21298485 5035
-2.6338842 -0.45821187 -0.21282513 5037
-2.636646 -0.44204205 -0.21282513 5133
-2.6353722 -0.42522225 -0.21250573 5109
-2.6349764 -0.40858704 -0.21226618 5087
-2.6344759 -0.39197272 -0.21202663 5109
-2.6358445 -0.3756603 -0.21194677 5171
-2.6371119 -0.35934588 -0.21186693 5210
-2.6392672 -0.3431581 -0.21186693 5273
-2.6353872 -0.3262254 -0.21138781 5142
-2.6332476 -0.29320151 -0.21090871 5233
-2.6340058 -0.27693489 -0.21082886 5289
-2.6356556 -0.26076773 -0.21082886 5319
-2.6372058 -0.24459076 -0.21082886 5331
-2.6356776 -0.22814804 -0.2105893 5268
-2.6360345 -0.21189213 -0.21050946 5303
-2.6323333 -0.13049258 -0.2097908 5280
-2.6330841 -0.11433844 -0.2097908 5177
-2.6337361 -0.098179981 -0.2097908 5231
-2.6332929 -0.081987277 -0.20971096 4319
-2.67261 -0.066781357 -0.21282513 1368
-2.6739662 -0.050399601 -0.21290499 1394
-2.6742251 -0.033991504 -0.21290499 1350
-2.6584344 -0.017484615 -0.21162738 1172
-2.6395102 0.015023162 -0.2101102 5139
-2.6358471 -0.49052325 -0.22982378 4984
-2.644691 -0.47539747 -0.23033942 5234
-2.6455948 -0.45882085 -0.23016754 5247
-2.6473777 -0.44241503 -0.2300816 5278
-2.6470914 -0.42568859 -0.22982378 5304
-2.6466999 -0.40898237 -0.22956598 5307
-2.6471884 -0.39244294 -0.22939409 5342
-2.6426415 -0.37521335 -0.22879253 5253
